# .PCD v0.7 - Point Cloud Data file format
VERSION 0.7
FIELDS x y z
SIZE 4 4 4
TYPE F F F
COUNT 1 1 1
WIDTH 4170
HEIGHT 1
VIEWPOINT 0 0 0 1 0 0 0
POINTS 4170
DATA ascii
97 -22 226
99 -22 227
104 -23 238
101 -22 227
100 -21 223
105 -22 232
100 -21 217
104 -22 224
102 -21 217
103 -21 217
103 -21 216
102 -20 212
105 -21 216
106 -21 214
112 -22 225
114 -22 228
115 -22 226
127 -24 249
160 -30 309
243 -46 465
409 -76 775
460 -85 864
486 -89 904
484 -88 893
488 -88 892
471 -84 852
487 -87 874
520 -92 924
528 -92 930
512 -89 895
513 -88 889
536 -92 921
523 -89 892
519 -87 877
535 -89 896
549 -91 912
527 -87 869
572 -93 934
532 -86 862
536 -86 862
543 -86 866
551 -87 873
512 -80 803
491 -76 765
438 -68 677
329 -50 504
300 -45 457
265 -40 400
248 -37 372
260 -39 388
262 -39 388
265 -39 389
255 -37 372
269 -39 389
265 -38 381
245 -35 349
280 -40 396
277 -39 389
281 -39 392
287 -40 397
268 -37 369
286 -39 391
292 -40 397
294 -40 397
290 -39 387
288 -38 383
-215 -30 284
-233 -32 309
-281 -39 375
-344 -49 464
-345 -49 468
-422 -61 576
-445 -64 612
-356 -52 493
-384 -56 536
-412 -61 578
-437 -65 617
-389 -58 554
-407 -61 584
-407 -62 587
-405 -62 589
-411 -63 603
-443 -69 655
-421 -65 626
-345 -54 517
-444 -70 670
-372 -59 566
-394 -63 604
-400 -65 619
-384 -62 598
-414 -68 651
0 0 0
0 0 0
0 0 0
0 0 0
0 0 0
0 0 0
0 0 0
0 0 0
0 0 0
0 0 0
0 0 0
0 0 0
0 0 0
-303 -55 535
-250 -46 445
-268 -50 480
0 0 0
-321 -60 586
0 0 0
0 0 0
0 0 0
-88 -17 168
-78 -15 150
-38 -7 74
-89 -18 174
0 0 0
-91 -18 181
0 0 0
0 0 0
0 0 0
-53 -11 111
-36 -7 75
-450 -97 949
0 0 0
-35 -7 75
0 0 0
0 0 0
-77 -17 173
-99 -23 223
-178 -41 404
-71 -16 164
-86 -20 200
-64 -15 152
0 0 0
0 0 0
-1110 -276 2696
-152 -38 374
-135 -34 337
-149 -38 377
0 0 0
-138 -36 356
0 0 0
-179 -48 473
-172 -47 461
-132 -36 358
-171 -47 470
-176 -49 489
-142 -40 402
-167 -48 478
-196 -57 568
-179 -53 527
-185 -56 552
-180 -55 544
-173 -53 530
-179 -56 557
-169 -54 533
-168 -54 538
-160 -52 522
-159 -53 526
-162 -54 542
-154 -53 525
-140 -49 485
-155 -55 544
-144 -52 516
-142 -52 517
-138 -51 512
-139 -52 523
-140 -54 535
-133 -52 521
-136 -54 539
-131 -53 532
-127 -52 524
-121 -51 509
-123 -53 529
-120 -53 526
-117 -52 524
-118 -54 537
-113 -53 526
-112 -53 531
-109 -53 527
-106 -53 527
-107 -54 543
-103 -53 536
-99 -53 528
-94 -51 513
-91 -51 511
-91 -52 525
-91 -53 535
-87 -53 530
-84 -52 523
-80 -51 511
-84 -55 556
-76 -52 519
-72 -50 502
-72 -52 519
-67 -50 500
-65 -50 508
-69 -55 552
-62 -51 516
-58 -50 499
-56 -50 508
-54 -50 505
-51 -50 501
-46 -47 475
-41 -44 441
-40 -45 454
-32 -37 379
-30 -38 382
-23 -30 309
-24 -34 342
-21 -31 319
-18 -29 292
-16 -28 289
-14 -26 267
-13 -27 279
-12 -27 272
-10 -27 272
-9 -27 278
-8 -27 278
-7 -27 279
-6 -27 278
-4 -27 272
-3 -28 280
-2 -27 271
-1 -27 276
0 -26 270
1 -28 282
2 -27 278
3 -27 277
4 -27 277
6 -28 280
7 -27 278
8 -26 267
10 -28 282
10 -27 272
11 -26 261
12 -26 260
13 -25 252
14 -25 255
15 -24 246
16 -24 247
17 -24 249
18 -24 249
20 -25 252
23 -27 272
25 -28 282
26 -28 279
26 -27 274
28 -27 279
31 -28 289
32 -29 294
32 -27 277
33 -27 276
36 -28 288
37 -28 286
39 -29 293
38 -27 277
42 -29 294
41 -28 283
44 -29 295
46 -30 299
46 -28 287
50 -30 303
54 -32 319
51 -29 293
54 -30 305
56 -31 309
59 -31 316
60 -31 314
58 -29 297
61 -30 306
64 -31 310
67 -32 320
65 -30 304
66 -30 299
68 -30 303
70 -30 305
64 -27 276
64 -27 270
57 -23 237
57 -23 231
63 -25 250
61 -24 237
62 -24 239
64 -24 243
63 -23 235
64 -23 234
63 -23 227
63 -22 222
67 -23 232
67 -23 231
67 -22 225
69 -23 228
71 -23 233
70 -22 225
71 -22 225
74 -23 230
77 -24 237
72 -22 218
77 -23 229
77 -23 227
79 -23 230
79 -23 227
82 -23 233
82 -23 229
83 -23 230
84 -23 228
85 -23 229
85 -23 227
93 -25 244
97 -25 250
105 -27 268
108 -28 274
115 -29 287
97 -24 238
104 -26 254
100 -24 241
102 -24 242
106 -25 249
101 -24 235
94 -22 216
101 -23 230
99 -23 223
98 -22 219
101 -22 223
101 -22 219
102 -22 219
103 -22 220
108 -23 229
104 -22 219
113 -24 234
108 -22 221
113 -23 229
113 -23 228
117 -24 233
121 -24 238
159 -32 311
210 -42 405
294 -58 563
429 -84 813
483 -94 906
481 -93 895
505 -96 930
482 -91 881
498 -93 901
500 -93 897
499 -92 887
538 -98 949
512 -93 894
508 -91 880
533 -95 915
516 -91 879
550 -97 929
535 -93 897
531 -92 882
551 -95 908
539 -92 881
536 -91 869
517 -87 830
512 -85 817
511 -84 809
396 -65 621
269 -44 418
270 -43 417
237 -38 363
255 -40 388
256 -40 386
251 -39 377
259 -40 385
270 -42 398
278 -42 407
266 -40 388
271 -41 392
268 -40 384
264 -39 375
278 -41 393
279 -41 392
282 -41 393
288 -42 398
291 -42 400
293 -42 400
283 -40 384
291 -41 392
299 -42 400
294 -41 390
-125 -18 164
-200 -29 266
-305 -45 407
-308 -45 415
-308 -46 418
-353 -53 482
-369 -56 508
-356 -54 493
-410 -63 572
-400 -62 562
-403 -62 570
-352 -55 501
-395 -62 567
-408 -64 589
-430 -68 626
-424 -68 621
-434 -70 640
-387 -63 575
-406 -66 609
-419 -69 633
-447 -74 680
-375 -63 576
-358 -60 553
0 0 0
-306 -52 480
0 0 0
0 0 0
0 0 0
0 0 0
0 0 0
0 0 0
0 0 0
0 0 0
0 0 0
0 0 0
0 0 0
0 0 0
0 0 0
0 0 0
0 0 0
0 0 0
0 0 0
-108 -21 198
-142 -28 262
0 0 0
-39 -7 73
-70 -14 132
-138 -28 264
-150 -31 289
-112 -23 219
-63 -13 124
-160 -34 318
-1305 -282 2618
0 0 0
-1300 -286 2660
-149 -33 308
-158 -35 330
-21 -4 45
0 0 0
-1173 -271 2524
0 0 0
-129 -30 284
-293 -69 651
-121 -29 272
-111 -27 252
-74 -18 172
-105 -26 244
-1107 -278 2598
-81 -20 192
-70 -18 169
-85 -22 207
-143 -37 351
-226 -60 563
-1088 -292 2739
-86 -23 219
0 0 0
-29 -8 77
-126 -35 333
-1010 -288 2703
-133 -38 361
0 0 0
-96 -28 267
-126 -37 357
-130 -39 371
-204 -62 591
-153 -47 450
-152 -48 453
-173 -55 522
-155 -50 477
-165 -54 513
-166 -55 525
-162 -54 518
-157 -54 511
-159 -55 524
-152 -53 510
-157 -56 535
-153 -56 531
-149 -55 523
-144 -54 516
-145 -55 526
-141 -55 523
-139 -55 524
-132 -53 505
-131 -54 512
-134 -56 532
-132 -56 535
-126 -54 520
-128 -56 536
-123 -55 526
-122 -56 534
-120 -56 535
-115 -55 525
-114 -55 529
-113 -56 539
-110 -56 534
-106 -55 524
-106 -56 536
-103 -56 533
-98 -55 524
-97 -55 527
-92 -54 516
-91 -54 524
-87 -53 513
-86 -54 522
-83 -54 515
-81 -54 522
-77 -53 508
-77 -54 521
-75 -55 526
-70 -53 510
-66 -52 498
-66 -53 515
-63 -53 509
-62 -53 515
-58 -52 499
-56 -52 506
-55 -53 514
-51 -51 496
-41 -44 425
-38 -42 409
-35 -41 400
-28 -35 336
-22 -29 279
-26 -36 351
-24 -35 342
-19 -30 291
-20 -34 331
-15 -28 275
-15 -29 282
-13 -28 272
-12 -28 271
-10 -28 269
-9 -28 273
-8 -28 269
-7 -29 281
-6 -28 274
-4 -28 274
-3 -29 287
-2 -30 287
-1 -29 281
0 -28 276
1 -28 272
2 -29 280
3 -28 273
4 -28 272
6 -28 275
7 -28 272
8 -28 272
9 -28 275
11 -29 280
12 -28 274
13 -28 271
14 -27 266
15 -27 262
16 -27 258
17 -27 261
18 -26 255
20 -28 270
22 -28 276
24 -29 283
25 -29 283
26 -28 277
28 -30 289
30 -30 294
30 -29 285
31 -29 283
34 -30 293
34 -30 288
35 -29 286
37 -29 286
38 -30 289
39 -30 287
41 -30 288
43 -30 296
44 -30 292
48 -32 308
48 -31 302
49 -31 295
53 -33 314
55 -33 319
56 -32 313
56 -32 306
58 -32 310
60 -33 314
62 -33 314
62 -32 310
62 -31 300
65 -32 312
70 -34 328
68 -32 312
62 -29 278
69 -31 303
65 -29 280
59 -26 247
64 -27 264
57 -24 233
62 -26 248
63 -25 245
60 -24 229
62 -24 235
64 -25 239
63 -24 230
64 -24 230
66 -24 234
67 -24 234
67 -24 231
68 -24 229
69 -24 227
68 -23 223
72 -24 232
72 -24 229
72 -23 226
73 -23 226
74 -23 225
78 -24 232
79 -24 233
81 -24 234
80 -24 228
79 -23 223
84 -25 235
83 -24 228
85 -24 232
87 -24 233
88 -25 234
87 -24 228
89 -24 229
99 -26 252
93 -25 234
97 -25 243
99 -26 245
105 -27 256
106 -27 255
108 -27 257
99 -25 234
101 -25 234
101 -24 232
100 -24 228
106 -25 239
102 -24 228
101 -23 222
103 -24 225
107 -24 230
103 -23 221
106 -24 225
101 -22 212
106 -23 220
107 -23 220
110 -24 224
112 -24 225
117 -25 232
155 -33 305
223 -47 435
340 -70 656
423 -87 810
456 -93 865
464 -94 871
481 -96 894
482 -96 889
478 -94 874
505 -99 914
502 -97 900
488 -94 867
501 -96 883
511 -97 893
513 -96 889
518 -97 890
522 -96 889
544 -100 918
530 -96 887
534 -96 887
531 -95 874
569 -101 930
548 -97 887
531 -93 854
398 -69 635
333 -57 527
213 -36 334
254 -43 396
225 -38 348
253 -42 388
258 -43 393
236 -39 357
266 -43 399
256 -41 380
263 -42 388
260 -42 382
267 -42 388
267 -42 386
270 -42 387
265 -41 377
269 -41 380
277 -42 389
280 -43 391
280 -42 387
281 -42 387
285 -43 389
299 -44 406
294 -43 396
305 -45 408
297 -43 395
-133 -20 176
-164 -25 218
-273 -42 365
-310 -48 418
-318 -49 431
-363 -57 495
-364 -57 501
-376 -59 521
-412 -66 574
-397 -64 557
-381 -62 539
-477 -77 678
-407 -67 583
-414 -68 598
-424 -70 617
-411 -69 603
-415 -70 613
-445 -75 662
-394 -67 591
-421 -72 636
-354 -61 539
-384 -67 589
0 0 0
0 0 0
0 0 0
0 0 0
0 0 0
0 0 0
0 0 0
0 0 0
0 0 0
0 0 0
0 0 0
0 0 0
0 0 0
0 0 0
0 0 0
0 0 0
0 0 0
0 0 0
0 0 0
-79 -16 143
-123 -25 225
-64 -13 118
-85 -17 159
-178 -37 334
-109 -23 208
0 0 0
-88 -19 171
-76 -16 148
-60 -13 118
-140 -31 279
0 0 0
-93 -21 190
-1198 -275 2451
-45 -10 93
0 0 0
0 0 0
-53 -12 113
-70 -16 151
-76 -18 165
-103 -25 228
0 0 0
-1196 -300 2686
-80 -20 181
-81 -20 187
-93 -24 216
-67 -17 157
-109 -29 260
-77 -20 185
-79 -21 191
-138 -37 339
-57 -15 142
-1089 -305 2741
-86 -24 219
-165 -47 425
-84 -24 219
-42 -12 111
-33 -9 88
-1014 -304 2748
-19 -5 52
-40 -12 112
-72 -22 204
-123 -39 352
-71 -22 206
-103 -33 304
-264 -86 785
-99 -33 300
-160 -54 491
-149 -51 464
-159 -55 504
-155 -55 498
-156 -56 508
-164 -59 542
-157 -58 528
-151 -56 516
-150 -57 519
-151 -58 530
-151 -59 542
-147 -58 534
-139 -56 515
-143 -59 538
-136 -57 519
-132 -56 517
-133 -58 529
-136 -60 550
-128 -57 527
-124 -57 520
-126 -59 542
-124 -59 541
-118 -57 525
-116 -58 530
-111 -56 517
-112 -58 531
-106 -56 515
-106 -57 525
-111 -61 563
-102 -58 530
-100 -58 531
-94 -56 513
-94 -57 528
-91 -57 523
-92 -59 545
-84 -55 510
-83 -56 518
-80 -56 513
-82 -58 539
-74 -55 507
-72 -55 505
-71 -56 518
-68 -55 510
-66 -55 513
-65 -57 524
-61 -55 508
-60 -56 516
-57 -55 511
-53 -54 498
-50 -53 493
-41 -46 423
-37 -43 399
-32 -39 366
-24 -31 291
-24 -33 306
-24 -34 319
-22 -34 314
-20 -33 308
-17 -31 287
-16 -31 287
-14 -30 278
-13 -29 272
-12 -30 277
-11 -30 283
-9 -29 275
-8 -29 270
-7 -30 282
-6 -31 286
-4 -30 276
-3 -30 280
-2 -29 274
-1 -29 271
0 -31 286
1 -30 276
2 -29 271
3 -29 274
5 -31 288
6 -30 279
7 -30 284
8 -29 271
9 -29 274
11 -30 281
12 -30 278
13 -29 275
15 -30 284
16 -30 276
17 -29 273
18 -29 271
20 -30 281
20 -29 274
23 -31 291
24 -30 283
26 -31 292
27 -31 293
29 -32 298
29 -30 283
31 -32 295
32 -31 291
33 -31 286
35 -32 295
34 -30 277
38 -32 296
39 -32 293
39 -31 284
42 -32 294
46 -34 316
47 -33 311
48 -33 307
51 -34 320
53 -35 321
54 -34 318
55 -34 315
55 -33 306
56 -33 305
58 -33 308
61 -34 316
61 -34 312
63 -34 315
68 -36 329
68 -35 325
68 -34 318
70 -34 319
70 -34 311
71 -34 311
69 -32 298
70 -32 296
64 -29 266
66 -29 270
66 -28 261
60 -25 236
65 -27 248
61 -25 230
64 -26 237
62 -24 226
62 -24 224
66 -25 232
64 -24 224
67 -25 230
69 -25 231
68 -25 227
71 -25 232
71 -25 229
71 -24 223
70 -24 220
74 -25 226
73 -24 222
76 -25 228
75 -24 221
77 -24 222
77 -24 221
81 -25 228
80 -24 223
85 -26 235
83 -25 227
87 -26 234
84 -24 223
88 -25 230
87 -25 226
85 -24 217
96 -27 242
99 -27 248
100 -27 247
104 -28 254
99 -26 238
112 -29 267
113 -29 266
110 -28 257
106 -27 243
106 -27 242
98 -24 221
102 -25 228
106 -26 233
109 -26 238
102 -24 219
112 -26 238
110 -26 232
109 -25 229
104 -24 216
116 -26 237
117 -26 238
138 -31 276
166 -37 329
252 -55 495
327 -71 638
384 -83 741
452 -97 863
467 -99 884
438 -92 822
481 -101 894
462 -96 851
488 -100 891
450 -92 814
506 -102 907
494 -99 878
494 -98 871
485 -96 847
484 -95 838
523 -101 898
525 -101 894
505 -96 852
493 -93 826
512 -96 850
536 -100 883
476 -88 777
467 -86 756
357 -65 575
297 -53 473
0 0 0
256 -45 402
241 -42 375
251 -44 389
248 -43 380
258 -44 392
247 -42 373
259 -44 389
267 -45 398
268 -45 396
265 -44 388
262 -43 382
275 -45 397
261 -42 374
277 -45 395
274 -44 388
270 -43 379
283 -45 394
279 -44 386
289 -45 397
289 -45 394
290 -45 393
288 -44 387
293 -45 392
295 -45 392
-120 -18 158
-164 -26 218
-188 -30 252
-263 -42 354
-344 -55 467
-414 -67 566
-386 -63 531
-333 -55 461
-368 -61 513
-420 -70 590
-431 -72 610
-383 -65 545
-436 -74 625
-423 -72 611
-425 -73 618
-430 -75 630
-435 -76 642
-449 -79 667
-400 -71 599
-369 -66 557
-347 -62 528
0 0 0
0 0 0
0 0 0
0 0 0
0 0 0
0 0 0
-377 -71 606
0 0 0
0 0 0
0 0 0
0 0 0
0 0 0
0 0 0
-158 -31 269
0 0 0
0 0 0
0 0 0
0 0 0
0 0 0
0 0 0
0 0 0
0 0 0
-163 -35 301
-111 -24 207
-82 -18 155
-14 -3 28
-116 -26 223
-88 -20 171
0 0 0
-132 -30 259
-134 -31 266
-81 -19 163
-49 -11 99
-85 -20 174
0 0 0
-172 -42 360
-158 -38 334
-95 -23 203
-90 -22 194
-138 -35 300
-81 -20 178
-30 -7 67
-88 -23 199
-42 -11 95
-66 -17 152
-60 -16 141
-81 -22 191
-81 -22 193
-75 -20 180
-81 -23 198
-51 -14 126
-102 -29 255
-86 -25 218
-43 -12 110
-85 -25 219
-45 -13 119
-83 -25 219
-236 -73 633
0 0 0
-101 -32 279
-113 -36 315
0 0 0
-105 -34 299
0 0 0
-85 -28 249
-126 -43 375
-10 -3 30
-918 -323 2811
0 0 0
0 0 0
-176 -64 565
-160 -59 520
-139 -52 460
-153 -59 514
-147 -57 502
-138 -54 479
-163 -65 575
-145 -59 518
-144 -59 522
-136 -57 504
-139 -59 524
-137 -60 526
-131 -58 509
-131 -59 520
-129 -59 521
-117 -55 482
-125 -60 527
-127 -61 543
-121 -60 530
-120 -61 536
-114 -58 517
-115 -61 536
-113 -61 535
-107 -58 517
-104 -58 518
-104 -60 527
-102 -60 532
-99 -60 528
-97 -60 531
-93 -59 521
-93 -60 531
-91 -60 536
-86 -58 519
-84 -59 523
-78 -56 501
-79 -59 520
-76 -58 514
-74 -58 519
-73 -60 529
-67 -56 499
-63 -55 492
-63 -57 510
-63 -59 521
-58 -57 503
-55 -55 492
-52 -55 487
-47 -51 457
-33 -38 340
-35 -43 383
-26 -33 300
-28 -38 339
-29 -41 364
-21 -32 288
-20 -33 292
-20 -35 313
-19 -34 306
-16 -31 282
-15 -31 282
-13 -31 282
-12 -32 285
-10 -30 270
-10 -32 291
-9 -32 290
-7 -30 271
-6 -31 276
-4 -30 273
-3 -31 277
-2 -32 283
-1 -30 269
0 -32 284
1 -32 283
2 -31 280
3 -31 281
5 -31 282
6 -32 283
7 -31 277
8 -32 283
9 -31 276
11 -31 279
12 -32 288
13 -32 284
15 -31 281
16 -32 284
17 -31 279
19 -32 288
20 -33 293
21 -32 287
22 -31 275
24 -32 284
26 -33 294
26 -31 281
27 -31 282
30 -33 296
31 -33 291
33 -33 299
35 -34 304
35 -33 296
37 -34 302
40 -35 313
41 -35 312
43 -35 310
43 -34 302
44 -34 302
48 -35 316
49 -35 312
51 -36 319
52 -36 318
54 -36 321
54 -35 314
58 -37 326
58 -35 315
60 -36 320
62 -36 324
62 -36 318
64 -36 317
66 -36 322
69 -37 327
69 -36 321
70 -36 319
76 -38 342
74 -37 326
73 -35 312
76 -36 319
77 -36 318
77 -35 313
73 -33 290
69 -30 270
62 -27 240
67 -29 254
63 -26 234
67 -28 246
67 -27 242
67 -27 237
67 -26 234
69 -27 236
70 -27 236
70 -26 233
71 -26 231
70 -25 224
72 -26 228
73 -26 229
74 -26 227
75 -26 228
78 -26 232
77 -26 227
78 -26 228
81 -26 232
79 -25 224
83 -26 231
82 -26 226
83 -26 226
85 -26 228
86 -26 228
86 -26 226
89 -26 230
88 -26 225
91 -26 230
95 -27 238
90 -25 223
108 -30 262
107 -29 257
116 -31 275
103 -28 242
109 -29 254
108 -28 248
105 -27 238
109 -28 245
110 -28 246
109 -27 239
111 -28 241
107 -27 232
110 -27 234
117 -28 247
116 -28 243
121 -29 251
121 -29 248
126 -29 256
133 -31 268
205 -47 407
242 -55 476
334 -76 651
375 -84 723
433 -97 827
448 -99 848
422 -92 791
439 -95 816
441 -95 812
462 -99 844
412 -87 746
416 -87 746
437 -91 777
363 -75 640
392 -80 684
379 -77 657
396 -80 679
384 -77 654
375 -74 633
404 -80 677
366 -72 608
356 -69 586
382 -73 624
390 -74 632
0 0 0
261 -49 417
269 -50 426
229 -42 359
248 -45 387
258 -47 398
255 -46 391
258 -46 393
257 -46 388
257 -45 385
261 -46 389
268 -47 396
259 -45 379
267 -46 389
262 -45 378
265 -45 381
271 -46 386
266 -44 376
273 -45 383
290 -48 404
278 -46 385
282 -46 388
279 -45 380
295 -47 400
288 -46 388
290 -46 388
296 -47 393
-113 -18 150
-161 -26 213
-172 -28 231
-178 -29 240
-270 -45 367
-324 -55 443
-372 -63 512
-373 -64 516
-362 -62 505
-365 -63 513
-361 -63 510
-436 -77 621
-423 -75 607
-393 -70 568
-412 -74 600
-405 -73 594
-401 -73 593
-381 -70 567
-402 -74 602
0 0 0
0 0 0
0 0 0
0 0 0
0 0 0
0 0 0
0 0 0
0 0 0
0 0 0
0 0 0
0 0 0
0 0 0
0 0 0
0 0 0
0 0 0
-161 -33 275
-85 -17 146
-134 -28 232
-105 -22 183
-111 -23 195
-48 -10 86
-62 -13 112
-90 -20 164
-108 -24 198
-45 -10 82
-130 -29 242
-58 -13 108
-86 -19 163
-44 -10 85
-15 -3 30
-68 -16 133
-79 -19 156
-17 -4 34
-37 -9 74
-72 -17 146
0 0 0
-106 -26 219
-7 -1 15
-80 -20 169
-96 -24 204
-63 -16 135
-75 -19 164
-97 -25 214
-90 -24 200
-107 -29 240
-46 -12 106
-112 -31 258
-91 -25 211
-83 -23 194
-71 -20 169
-77 -22 185
-80 -23 194
-90 -26 223
-77 -23 193
-67 -20 169
-74 -22 189
-102 -31 265
-49 -15 128
-98 -31 260
-94 -30 252
-36 -11 98
-92 -30 253
-111 -36 308
-100 -33 282
-974 -332 2781
-55 -19 162
0 0 0
0 0 0
-38 -13 116
-906 -331 2775
-72 -26 223
-53 -19 167
-832 -317 2662
0 0 0
-132 -51 436
-151 -60 507
-165 -67 563
-149 -61 515
-144 -60 507
-143 -60 511
-139 -60 506
-141 -61 521
-132 -58 496
-137 -62 524
-131 -60 509
-129 -60 514
-128 -61 520
-127 -61 522
-122 -60 513
-119 -60 511
-125 -64 547
-111 -58 495
-115 -61 521
-115 -63 533
-114 -63 540
-105 -60 509
-104 -60 515
-103 -61 523
-102 -62 530
-100 -62 532
-98 -63 536
-93 -61 519
-92 -62 526
-88 -61 519
-86 -61 523
-85 -62 531
-82 -61 524
-80 -61 525
-75 -60 510
-73 -60 512
-71 -60 513
-66 -58 495
-64 -58 497
-63 -59 508
-61 -60 511
-59 -60 509
-55 -58 498
-48 -52 449
-35 -40 344
-33 -40 342
-29 -37 317
-33 -43 369
-32 -44 378
-26 -38 329
-24 -37 321
-21 -35 299
-18 -32 279
-17 -33 286
-17 -34 296
-14 -32 273
-13 -32 278
-12 -31 272
-11 -33 281
-10 -33 282
-8 -32 279
-7 -31 267
-6 -33 283
-4 -32 273
-3 -32 279
-2 -33 281
-1 -33 289
0 -33 281
1 -33 283
2 -33 281
3 -32 275
4 -31 270
6 -32 278
7 -33 282
9 -34 290
9 -32 279
11 -32 280
12 -33 286
13 -32 278
15 -33 285
16 -33 282
18 -34 294
19 -33 285
21 -35 299
21 -33 285
22 -32 276
25 -35 299
25 -33 286
28 -35 298
31 -37 315
31 -35 302
32 -35 303
34 -36 310
37 -37 322
40 -39 331
38 -35 304
39 -35 303
41 -36 310
45 -38 326
44 -36 308
45 -36 310
47 -36 310
50 -37 319
51 -37 318
55 -39 331
55 -38 327
55 -37 319
57 -37 318
59 -38 324
57 -36 305
58 -35 304
62 -37 317
65 -38 323
70 -40 339
66 -36 312
71 -38 329
68 -36 311
76 -40 338
71 -36 311
69 -35 298
78 -38 328
85 -41 349
82 -39 330
82 -38 324
75 -34 292
70 -31 268
68 -30 256
65 -28 241
66 -28 240
68 -29 245
65 -27 228
67 -27 231
67 -27 228
69 -27 233
70 -27 233
71 -27 231
70 -26 225
70 -26 222
72 -26 225
76 -27 232
76 -27 232
77 -27 230
77 -27 225
78 -27 226
80 -27 231
77 -26 219
80 -26 224
82 -27 225
86 -28 235
86 -27 231
84 -26 222
89 -28 234
86 -26 222
92 -28 236
92 -27 231
96 -28 239
93 -27 228
103 -30 251
108 -31 260
104 -29 248
115 -32 271
111 -31 259
109 -30 250
112 -30 255
116 -31 260
115 -31 256
121 -32 267
117 -30 254
116 -30 250
115 -29 246
127 -32 268
121 -30 253
123 -30 254
119 -29 244
124 -30 251
141 -34 284
146 -35 291
240 -57 472
299 -70 582
300 -70 580
337 -78 645
351 -81 665
341 -78 640
316 -71 589
349 -78 643
351 -78 641
348 -77 630
313 -68 562
381 -82 677
328 -70 577
331 -70 578
312 -66 541
303 -63 520
391 -81 665
331 -68 559
379 -78 635
427 -87 709
330 -66 543
372 -74 608
0 0 0
0 0 0
0 0 0
239 -46 378
247 -47 388
239 -46 373
253 -48 391
242 -45 371
250 -47 381
256 -47 386
257 -47 385
256 -47 381
264 -48 390
266 -48 389
264 -47 384
252 -45 363
276 -49 396
263 -46 375
267 -46 378
280 -48 393
278 -48 387
289 -49 400
276 -47 379
296 -50 404
287 -48 389
285 -47 384
302 -50 403
290 -48 385
-111 -19 147
-103 -17 137
-140 -24 188
-176 -30 237
-219 -38 297
-334 -58 455
-347 -61 477
-431 -76 596
-378 -67 526
-347 -62 487
-422 -76 597
-399 -73 567
-395 -72 566
-430 -79 621
-399 -74 581
-412 -77 604
-384 -72 567
-400 -76 595
0 0 0
0 0 0
0 0 0
0 0 0
0 0 0
0 0 0
0 0 0
0 0 0
0 0 0
0 0 0
0 0 0
0 0 0
0 0 0
-187 -39 310
-67 -14 112
0 0 0
-137 -29 234
-97 -21 168
-74 -16 129
-78 -17 137
-90 -20 158
-61 -13 109
-104 -23 187
-66 -15 120
-105 -24 192
-63 -14 116
-69 -16 129
-107 -25 202
-45 -10 85
-55 -13 105
-75 -18 146
-107 -26 209
-91 -22 179
-145 -36 288
-100 -25 202
-115 -29 234
-140 -36 286
-109 -28 225
-73 -19 154
-94 -24 198
-139 -37 297
-78 -21 168
-51 -14 112
-143 -39 315
-108 -30 240
-81 -22 183
-74 -21 168
-102 -29 235
-108 -31 250
-78 -23 184
-74 -21 175
-77 -23 185
-77 -23 188
-78 -23 192
-69 -21 173
-73 -22 184
-30 -9 77
-63 -20 163
-65 -21 171
-73 -24 193
-70 -23 189
-41 -13 111
-72 -24 200
-35 -12 98
-67 -23 191
-117 -41 335
-90 -32 262
0 0 0
-74 -27 222
-86 -32 261
-51 -19 158
-30 -11 94
-114 -44 360
-78 -31 251
-66 -26 215
-79 -32 263
-79 -32 266
-142 -59 485
-147 -62 508
-142 -61 500
-148 -65 530
-143 -64 519
-140 -63 518
-131 -60 494
-138 -65 530
-133 -63 519
-130 -63 515
-129 -64 520
-125 -63 515
-124 -63 520
-120 -62 512
-118 -63 514
-116 -63 517
-115 -64 521
-112 -63 519
-110 -64 522
-107 -63 520
-104 -63 515
-107 -66 541
-102 -64 529
-99 -64 529
-97 -64 530
-96 -65 536
-88 -62 508
-89 -63 522
-86 -63 522
-83 -62 514
-81 -63 517
-80 -64 527
-77 -63 523
-68 -58 477
-73 -64 526
-66 -60 494
-64 -60 495
-61 -59 490
-55 -55 458
-55 -57 474
-51 -56 463
-38 -43 356
-38 -45 372
-35 -43 356
-34 -44 368
-30 -42 344
-33 -48 396
-25 -37 311
-25 -40 330
-23 -39 322
-19 -34 286
-17 -34 285
-16 -34 279
-14 -33 271
-14 -34 285
-12 -34 279
-10 -32 270
-10 -34 285
-8 -34 281
-7 -35 290
-6 -34 285
-4 -32 269
-3 -34 284
-2 -33 278
-1 -35 290
0 -34 283
1 -35 293
2 -34 283
3 -34 279
5 -34 286
6 -33 277
7 -33 271
8 -33 271
10 -35 290
11 -35 294
12 -34 281
14 -35 295
15 -35 294
15 -33 274
17 -34 282
19 -35 292
19 -33 276
21 -35 288
22 -34 280
25 -36 301
27 -37 304
28 -36 300
30 -37 311
33 -39 321
33 -38 315
35 -38 316
35 -37 305
37 -38 313
39 -38 316
43 -41 336
43 -39 323
44 -39 319
46 -39 321
47 -39 321
48 -39 319
48 -37 307
52 -39 327
52 -38 313
54 -39 320
56 -39 323
58 -39 323
57 -38 314
60 -39 322
62 -39 321
62 -38 317
65 -39 324
66 -39 323
70 -40 332
64 -36 297
73 -41 335
66 -36 295
77 -41 337
77 -40 329
78 -40 326
87 -44 358
80 -39 323
86 -42 343
84 -40 327
77 -36 296
82 -38 309
80 -36 295
68 -30 247
68 -30 243
69 -30 245
65 -27 225
68 -28 232
68 -28 230
70 -28 233
72 -29 236
71 -28 227
70 -27 222
74 -28 231
75 -28 229
76 -28 229
77 -28 230
77 -28 228
78 -28 226
80 -28 230
81 -28 228
82 -28 229
83 -28 228
80 -27 217
83 -27 223
87 -28 231
86 -27 224
91 -29 234
86 -27 220
86 -27 217
95 -29 236
94 -29 232
105 -32 256
108 -32 260
103 -30 246
108 -31 255
106 -30 247
108 -31 248
116 -33 263
108 -30 244
111 -31 248
122 -33 268
118 -32 257
123 -33 264
115 -30 246
124 -33 263
128 -33 268
120 -31 249
123 -31 252
123 -31 249
131 -33 263
136 -34 271
190 -47 375
205 -50 400
254 -62 491
285 -68 545
301 -72 571
321 -76 602
323 -76 601
343 -80 632
300 -69 548
357 -82 647
332 -75 596
335 -75 595
327 -73 576
361 -80 630
324 -71 561
300 -65 515
375 -81 638
360 -77 608
365 -77 612
324 -68 539
368 -77 606
246 -51 403
0 0 0
164 -33 263
204 -41 325
240 -48 380
241 -48 378
240 -47 373
246 -48 380
255 -50 391
252 -49 384
248 -48 375
253 -48 379
264 -50 392
258 -48 380
264 -49 387
262 -49 381
258 -47 372
266 -49 382
271 -49 385
278 -50 393
264 -47 371
269 -48 376
267 -47 369
266 -47 365
273 -48 372
285 -49 387
291 -50 392
269 -46 360
261 -44 347
-84 -14 111
-74 -13 98
-56 -10 75
-158 -28 213
-250 -45 338
-331 -60 452
-346 -63 475
-325 -60 450
-350 -65 488
-417 -78 585
-382 -71 539
-400 -75 569
-416 -79 596
-398 -76 575
-366 -70 532
-377 -73 553
-352 -69 519
0 0 0
0 0 0
0 0 0
0 0 0
0 0 0
0 0 0
0 0 0
0 0 0
0 0 0
0 0 0
0 0 0
0 0 0
0 0 0
0 0 0
-104 -22 173
-103 -22 173
0 0 0
-168 -37 286
-129 -29 222
-109 -24 188
-93 -21 162
-48 -11 84
-70 -16 124
-31 -7 56
-52 -12 94
-81 -19 149
-124 -30 229
-34 -8 64
-78 -19 146
-50 -12 95
-77 -19 147
-120 -30 231
-63 -16 122
-97 -24 190
-109 -28 217
-69 -18 140
-36 -9 74
-59 -15 121
-57 -15 118
-31 -8 64
-123 -33 260
-60 -16 129
-70 -19 150
-79 -22 172
-84 -24 184
-73 -21 163
-42 -12 95
-77 -22 176
-73 -21 167
-87 -26 203
-111 -33 260
-79 -24 189
-83 -25 199
-70 -21 169
-83 -26 206
-64 -20 160
-86 -28 218
-56 -18 143
-73 -24 190
-64 -21 167
-60 -20 160
-76 -26 204
-81 -28 220
-64 -22 178
-49 -17 138
-104 -37 295
-63 -23 181
-63 -23 184
0 0 0
-125 -47 372
-47 -18 141
-46 -18 142
-46 -18 145
-48 -19 152
-28 -11 91
-88 -36 285
-80 -34 266
-88 -37 295
-124 -54 423
-158 -69 545
-138 -62 485
-142 -65 509
-144 -66 523
-143 -67 528
-136 -65 511
-135 -66 517
-129 -64 502
-132 -66 523
-126 -64 510
-127 -66 524
-122 -65 513
-123 -66 526
-120 -66 523
-112 -63 500
-118 -68 535
-112 -65 518
-113 -68 537
-107 -66 521
-106 -66 525
-103 -66 523
-101 -66 527
-100 -67 534
-99 -68 541
-94 -66 525
-93 -67 534
-90 -67 529
-87 -66 525
-83 -65 516
-82 -66 526
-78 -64 513
-76 -65 515
-73 -64 509
-70 -64 507
-66 -63 498
-67 -65 517
-61 -62 493
-57 -60 475
-46 -50 401
-43 -48 387
-41 -48 383
-36 -44 349
-37 -47 378
-32 -44 349
-29 -42 335
-27 -40 324
-26 -41 329
-22 -37 294
-21 -38 307
-19 -37 294
-17 -35 278
-16 -35 282
-15 -37 294
-13 -35 279
-12 -34 270
-11 -35 283
-10 -35 283
-8 -34 274
-7 -34 270
-6 -35 284
-5 -35 282
-3 -35 280
-2 -36 287
-1 -35 279
0 -35 282
1 -34 275
2 -35 280
3 -34 275
5 -36 285
6 -36 292
7 -35 280
9 -36 291
9 -34 276
11 -35 281
12 -35 283
14 -36 288
15 -36 286
16 -35 280
17 -34 277
18 -35 283
21 -37 294
23 -38 304
23 -37 297
24 -37 293
27 -38 308
29 -40 318
28 -36 290
32 -39 315
33 -39 312
36 -40 323
36 -39 309
40 -42 332
39 -40 318
43 -41 331
42 -40 316
44 -40 321
46 -41 324
49 -42 334
48 -40 318
50 -41 324
50 -39 313
54 -41 326
50 -37 298
56 -41 324
59 -41 329
60 -41 329
60 -40 319
63 -41 327
62 -40 315
65 -40 322
72 -44 352
69 -41 328
67 -39 311
70 -40 319
73 -41 324
71 -39 309
77 -42 331
80 -42 336
80 -42 329
83 -42 335
83 -41 328
85 -42 330
88 -43 338
88 -42 332
82 -38 303
77 -35 279
70 -32 250
68 -30 238
68 -30 234
69 -30 237
71 -30 240
67 -28 222
68 -28 223
73 -30 235
70 -28 220
75 -29 233
73 -28 223
76 -29 229
77 -29 230
80 -30 236
79 -29 228
77 -28 221
80 -29 227
82 -29 228
82 -29 226
82 -28 224
87 -29 232
89 -30 236
87 -29 227
87 -29 226
88 -28 224
90 -29 227
89 -28 223
89 -28 220
97 -30 236
104 -32 249
112 -34 265
115 -34 270
112 -33 261
117 -35 270
114 -33 260
113 -32 254
114 -32 253
111 -31 245
118 -33 258
116 -32 251
116 -32 248
118 -32 249
120 -32 251
122 -32 252
122 -32 249
129 -34 261
130 -34 260
155 -40 307
192 -49 377
192 -49 375
303 -76 584
279 -69 534
318 -78 601
304 -74 570
278 -67 516
295 -71 544
306 -73 559
295 -70 535
323 -76 579
329 -76 584
308 -71 543
314 -72 549
335 -76 580
318 -72 546
294 -65 500
311 -69 526
326 -71 545
258 -56 428
319 -69 525
250 -54 409
239 -51 387
248 -52 398
233 -49 371
238 -49 376
233 -48 366
244 -50 380
230 -47 356
247 -50 379
250 -50 380
248 -49 375
245 -48 367
239 -47 356
230 -45 340
250 -48 366
251 -48 365
244 -47 353
256 -48 367
230 -43 327
256 -48 362
250 -46 351
263 -48 366
269 -49 373
274 -50 376
255 -46 348
254 -46 344
255 -45 343
268 -47 358
257 -45 341
-94 -17 124
-72 -13 96
-80 -14 108
-135 -25 182
-126 -23 171
-276 -52 377
-296 -56 406
-275 -52 380
-398 -76 555
-378 -73 531
-374 -72 528
-433 -85 616
-473 -93 679
-431 -85 622
-433 -86 630
0 0 0
0 0 0
0 0 0
0 0 0
0 0 0
0 0 0
0 0 0
0 0 0
0 0 0
0 0 0
0 0 0
0 0 0
0 0 0
0 0 0
0 0 0
0 0 0
0 0 0
-156 -35 261
-131 -30 221
-98 -22 167
-113 -26 194
-79 -18 136
-116 -27 203
-120 -28 211
-88 -21 157
-47 -11 84
-99 -24 179
-102 -25 186
-90 -22 166
-91 -23 169
-53 -13 100
-98 -25 186
-112 -29 215
-76 -19 147
-47 -12 92
-42 -11 84
-113 -30 224
-84 -22 169
-81 -22 164
-81 -22 165
-90 -25 187
-45 -12 95
-84 -24 178
-60 -17 129
-86 -24 184
-98 -28 213
-54 -16 120
-38 -11 85
-59 -18 134
-61 -18 139
-87 -26 200
-92 -28 215
-82 -25 193
-85 -27 202
-90 -29 216
-85 -27 206
-68 -22 167
-64 -21 160
-69 -23 174
-60 -20 152
-51 -17 132
-47 -16 124
-77 -27 203
-96 -34 257
-61 -22 167
-63 -23 174
0 0 0
-44 -16 124
-34 -13 98
-85 -32 246
-30 -11 89
-39 -15 118
-85 -34 258
-854 -346 2612
-78 -32 242
-64 -27 203
-62 -26 198
-129 -55 421
-30 -13 99
-63 -28 211
-87 -39 296
-73 -33 254
-92 -43 326
-124 -58 445
-145 -69 528
-137 -66 507
-137 -68 515
-134 -67 512
-128 -65 499
-131 -68 522
-128 -68 517
-119 -64 492
-126 -69 527
-123 -69 525
-120 -68 522
-116 -68 517
-114 -68 517
-112 -68 518
-108 -67 515
-107 -68 518
-106 -68 524
-102 -68 520
-104 -70 538
-97 -67 517
-97 -69 527
-93 -68 520
-94 -70 541
-84 -65 496
-85 -67 515
-82 -66 508
-83 -69 529
-77 -66 510
-76 -67 514
-73 -67 514
-69 -65 500
-67 -66 504
-59 -59 454
-49 -51 396
-45 -49 375
-45 -50 388
-38 -45 346
-39 -47 365
-33 -42 321
-35 -46 356
-28 -40 308
-27 -40 311
-24 -38 293
-25 -40 310
-20 -35 273
-23 -42 322
-18 -36 281
-17 -36 279
-16 -37 286
-15 -37 288
-14 -38 291
-12 -37 286
-11 -36 279
-10 -37 289
-8 -36 281
-7 -36 280
-6 -37 287
-4 -36 278
-3 -35 273
-2 -34 267
-1 -37 285
0 -36 276
1 -36 282
2 -36 282
3 -36 281
5 -36 280
6 -37 285
7 -37 288
8 -35 274
10 -37 287
11 -38 296
13 -38 292
14 -37 287
15 -37 284
16 -38 291
18 -38 293
19 -37 286
20 -37 284
23 -40 308
24 -40 308
27 -42 328
28 -41 314
30 -41 320
32 -43 330
32 -41 319
36 -44 337
35 -41 316
36 -41 315
38 -42 321
41 -43 331
43 -43 334
43 -42 321
44 -41 318
46 -42 327
48 -43 328
50 -43 329
49 -41 317
51 -41 317
52 -41 319
56 -43 330
56 -42 323
60 -44 337
60 -42 326
61 -42 326
63 -43 328
67 -44 339
64 -42 319
65 -41 315
72 -44 340
72 -44 336
72 -43 327
73 -43 327
73 -42 320
77 -43 330
80 -44 338
81 -43 332
85 -45 345
89 -46 352
83 -42 324
93 -46 355
88 -43 332
93 -45 343
93 -45 340
83 -39 296
74 -34 262
71 -32 245
67 -30 230
70 -31 236
67 -29 223
70 -30 228
72 -30 231
72 -30 227
72 -29 223
74 -30 226
76 -30 229
76 -30 226
74 -29 218
82 -31 238
80 -30 229
80 -30 227
82 -30 228
84 -30 231
83 -30 227
84 -30 225
87 -30 230
86 -30 226
87 -29 224
89 -30 226
90 -30 227
92 -30 229
92 -30 226
92 -29 223
109 -35 262
98 -31 232
103 -32 243
112 -35 261
113 -34 260
107 -32 243
115 -34 258
114 -34 254
112 -33 246
120 -35 262
118 -34 254
122 -35 260
122 -34 258
120 -33 252
122 -34 253
128 -35 262
128 -35 259
135 -36 270
147 -39 292
170 -45 334
210 -55 410
258 -67 498
250 -64 478
343 -88 649
290 -73 543
315 -79 586
292 -73 538
291 -72 531
337 -82 609
318 -77 571
301 -72 536
321 -77 566
283 -67 495
290 -68 503
277 -64 476
314 -72 534
333 -76 562
282 -64 473
308 -69 511
311 -70 513
284 -63 464
248 -55 402
260 -57 418
255 -55 407
247 -53 391
213 -45 335
215 -45 334
219 -46 338
217 -45 333
223 -46 340
229 -47 345
212 -43 317
242 -49 359
228 -46 337
222 -44 326
233 -46 339
229 -45 330
223 -44 320
204 -40 291
231 -45 326
217 -42 305
220 -42 307
223 -42 308
219 -41 301
225 -42 307
222 -41 301
250 -46 336
249 -46 333
253 -46 335
-43 -8 57
-83 -15 111
-83 -16 112
-120 -23 161
-198 -38 269
-251 -48 342
-291 -57 400
-305 -60 421
-334 -66 466
-357 -71 501
-436 -87 616
-444 -89 631
-418 -85 599
-389 -79 561
-401 -82 583
0 0 0
0 0 0
0 0 0
0 0 0
0 0 0
0 0 0
0 0 0
0 0 0
0 0 0
0 0 0
0 0 0
0 0 0
0 0 0
0 0 0
-166 -38 272
-157 -36 259
-127 -29 211
-105 -24 177
-71 -16 120
-100 -24 170
-85 -20 145
-95 -23 165
-95 -23 167
-110 -27 194
-46 -11 82
-106 -26 190
-84 -21 153
-95 -24 173
-98 -25 181
-86 -22 160
-90 -23 170
-101 -26 192
-49 -13 95
-48 -13 93
-116 -31 225
-102 -28 201
-53 -14 106
-62 -17 125
-60 -17 122
-79 -22 161
-84 -24 174
-117 -34 245
-44 -13 94
-78 -23 167
-91 -27 196
-79 -24 173
-67 -20 147
-74 -23 166
-50 -15 112
-61 -19 139
-83 -26 192
-69 -22 161
-49 -16 116
-58 -19 139
-75 -25 181
-76 -25 185
-68 -23 167
-67 -23 168
-74 -25 186
-71 -24 181
-72 -25 186
-85 -30 221
-83 -30 219
-66 -24 178
-79 -29 215
-78 -29 215
-77 -29 215
-64 -25 182
-103 -40 294
-48 -19 141
-42 -17 125
-83 -34 249
-23 -9 70
-45 -19 139
-70 -29 217
-63 -27 200
-62 -27 198
-81 -36 265
-75 -33 248
-50 -22 168
-48 -22 164
-61 -28 211
-68 -32 240
-50 -24 179
-132 -65 480
-130 -65 481
-132 -68 498
-131 -68 503
-133 -70 517
-128 -69 509
-129 -70 520
-127 -71 525
-123 -70 514
-119 -69 509
-119 -70 520
-116 -70 519
-113 -70 515
-112 -70 520
-115 -73 543
-109 -71 527
-101 -68 503
-102 -70 518
-102 -72 530
-99 -71 527
-92 -68 503
-94 -71 525
-90 -70 518
-87 -69 510
-86 -70 518
-81 -68 502
-80 -69 511
-79 -70 518
-73 -67 494
-71 -67 495
-71 -69 512
-57 -57 424
-50 -52 388
-49 -53 392
-42 -47 354
-42 -49 365
-37 -45 338
-36 -46 344
-35 -46 342
-35 -49 363
-29 -42 315
-28 -43 318
-28 -44 332
-23 -39 291
-22 -39 290
-21 -40 301
-17 -35 266
-18 -39 295
-15 -37 274
-14 -37 279
-13 -36 273
-12 -39 290
-11 -38 283
-9 -37 275
-9 -39 290
-7 -38 284
-6 -37 281
-5 -40 297
-3 -38 288
-2 -38 287
-1 -37 280
0 -38 288
1 -37 278
2 -39 293
3 -38 285
5 -38 288
6 -38 288
7 -38 286
8 -37 276
10 -39 294
11 -39 290
12 -38 283
14 -40 298
16 -41 305
17 -39 295
18 -40 299
20 -40 299
22 -41 308
23 -41 306
25 -42 315
29 -46 341
27 -41 305
30 -43 321
30 -41 309
34 -45 336
33 -41 310
36 -43 322
37 -43 325
38 -43 320
39 -42 316
42 -44 326
41 -42 312
46 -45 332
47 -44 331
48 -44 326
49 -44 325
52 -45 336
54 -45 336
53 -43 324
55 -43 323
57 -44 326
59 -44 330
62 -46 339
61 -44 324
58 -40 301
64 -43 323
63 -42 315
65 -42 315
66 -43 316
74 -46 342
75 -46 344
79 -47 351
74 -44 326
76 -44 326
76 -43 319
83 -46 344
84 -46 340
84 -45 333
87 -46 341
87 -45 335
86 -44 325
96 -48 355
89 -44 324
85 -41 303
79 -38 278
76 -36 265
72 -33 246
71 -32 240
72 -32 237
72 -31 233
75 -33 241
72 -31 228
74 -31 231
75 -31 230
72 -30 219
76 -31 227
76 -30 224
77 -30 224
81 -31 232
81 -31 228
80 -30 223
82 -31 226
81 -30 221
81 -30 218
84 -30 223
86 -30 224
88 -31 227
88 -30 223
93 -32 235
89 -30 222
94 -32 231
100 -33 243
97 -32 234
80 -26 191
122 -39 287
115 -37 267
117 -37 268
113 -35 257
121 -37 272
118 -36 262
114 -34 250
116 -35 254
117 -35 252
122 -36 260
115 -33 243
121 -35 253
120 -34 248
126 -35 257
125 -35 254
126 -35 253
155 -43 308
199 -54 392
217 -59 423
241 -65 465
236 -63 451
258 -68 488
286 -75 537
304 -79 565
280 -72 517
306 -78 558
244 -62 442
274 -69 492
258 -64 459
247 -61 436
239 -58 418
239 -58 414
249 -60 427
226 -54 386
194 -46 328
229 -54 383
230 -54 383
227 -52 374
208 -48 340
206 -47 334
186 -42 299
211 -47 336
190 -42 301
178 -39 279
186 -41 289
216 -47 333
184 -40 283
174 -37 265
174 -37 263
166 -35 248
202 -42 301
202 -42 298
212 -44 311
202 -41 295
176 -36 254
207 -42 297
229 -46 326
210 -42 297
209 -41 293
177 -35 247
161 -31 223
170 -33 234
218 -42 297
208 -40 282
229 -44 309
230 -44 308
254 -48 337
-116 -22 153
-119 -23 158
-28 -5 38
-102 -20 137
-77 -15 104
-207 -41 283
-286 -58 393
-274 -55 379
-300 -61 418
-381 -78 534
-401 -83 566
-388 -81 552
-333 -70 477
-416 -88 600
-347 -74 505
0 0 0
0 0 0
0 0 0
0 0 0
0 0 0
0 0 0
0 0 0
0 0 0
0 0 0
0 0 0
0 0 0
0 0 0
0 0 0
0 0 0
-150 -35 246
0 0 0
-112 -27 186
-105 -25 176
-94 -23 158
-77 -19 132
-101 -25 173
-131 -33 227
-75 -19 132
-142 -36 250
-81 -21 144
-87 -22 157
-110 -28 199
-107 -28 195
-79 -21 146
-85 -22 158
-53 -14 100
-96 -26 182
-65 -18 125
-62 -17 119
-76 -21 148
-117 -33 229
-50 -14 100
-63 -18 126
-82 -24 167
-81 -23 166
-78 -23 162
-61 -18 128
-35 -10 75
-106 -32 226
-75 -23 162
-77 -24 167
-99 -31 219
-76 -24 169
-65 -20 146
-107 -34 244
-105 -34 242
-67 -22 156
-61 -20 145
-86 -29 204
-76 -26 182
-81 -28 198
-73 -25 179
-68 -24 170
-64 -23 161
-66 -24 170
-72 -26 186
-74 -27 194
-64 -24 170
-159 -60 425
-52 -20 142
-88 -34 242
-85 -33 238
-73 -29 205
-73 -29 210
-54 -22 157
-56 -23 165
-74 -31 222
-51 -22 156
-56 -24 173
-65 -28 203
-58 -26 184
-51 -23 163
-38 -17 123
-36 -17 121
-54 -25 182
-47 -22 161
-38 -18 131
-84 -41 296
-60 -30 215
-94 -48 341
-120 -62 442
-129 -68 485
-129 -69 492
-131 -71 511
-125 -70 497
-128 -72 518
-123 -71 508
-126 -74 528
-119 -71 509
-121 -74 527
-118 -73 525
-112 -71 510
-110 -71 510
-114 -75 541
-107 -73 521
-106 -74 528
-101 -71 512
-100 -72 517
-100 -74 531
-96 -73 521
-94 -73 527
-90 -71 514
-86 -70 504
-86 -72 521
-84 -72 521
-77 -69 496
-77 -70 506
-73 -69 496
-68 -66 476
-53 -53 384
-56 -58 418
-50 -54 387
-43 -48 348
-40 -46 335
-40 -48 344
-38 -48 348
-37 -48 347
-32 -44 317
-32 -46 333
-27 -41 295
-27 -42 305
-25 -41 296
-23 -40 289
-22 -40 291
-20 -40 293
-19 -40 287
-18 -40 291
-16 -39 285
-14 -38 273
-14 -39 285
-12 -40 289
-11 -38 276
-10 -39 283
-8 -39 280
-7 -40 288
-6 -39 286
-5 -39 281
-3 -38 274
-2 -38 278
-1 -38 278
0 -39 282
1 -37 271
2 -41 296
3 -40 291
5 -39 280
5 -37 266
7 -40 287
9 -41 299
10 -39 284
11 -38 279
12 -40 288
14 -41 294
14 -38 275
17 -42 301
19 -43 308
20 -42 305
23 -45 324
25 -46 334
24 -42 304
26 -43 308
29 -45 325
29 -44 317
30 -43 312
33 -45 323
34 -45 325
37 -46 334
38 -45 328
39 -45 325
39 -44 316
43 -46 331
43 -45 325
44 -44 320
46 -45 324
46 -44 316
49 -45 327
50 -45 323
53 -46 330
53 -44 320
54 -45 321
56 -44 320
58 -45 326
62 -47 336
66 -49 350
64 -46 333
63 -45 323
67 -46 334
68 -46 330
70 -47 335
67 -43 313
72 -46 329
72 -45 323
77 -47 336
78 -47 336
81 -47 339
80 -46 329
85 -48 343
84 -46 332
85 -46 330
89 -48 343
89 -47 336
89 -46 329
89 -45 323
86 -43 310
93 -46 328
88 -43 304
80 -38 274
70 -33 235
70 -32 233
75 -34 244
73 -33 235
72 -32 229
72 -31 225
76 -33 233
76 -32 231
74 -31 222
78 -32 230
79 -32 229
78 -31 224
80 -32 226
82 -32 229
80 -31 219
84 -32 229
85 -32 227
84 -31 221
88 -32 229
87 -32 226
88 -32 226
97 -34 245
92 -32 230
106 -37 262
109 -37 265
118 -40 285
110 -37 262
108 -36 253
114 -37 265
114 -37 261
112 -36 255
117 -37 262
117 -37 259
109 -34 241
118 -36 257
117 -36 252
118 -36 253
117 -35 247
119 -35 249
125 -37 258
120 -35 245
125 -36 252
135 -39 271
138 -39 275
165 -46 324
199 -55 387
182 -50 351
173 -47 332
183 -50 347
178 -48 333
187 -50 349
190 -50 351
214 -56 391
190 -49 343
165 -42 296
187 -48 333
163 -41 288
193 -48 336
180 -45 313
184 -45 315
163 -40 277
186 -45 314
165 -40 276
193 -46 321
187 -44 308
177 -42 289
174 -41 282
160 -37 258
210 -48 334
185 -42 293
150 -34 236
159 -36 248
146 -33 225
194 -43 297
179 -39 272
177 -39 267
216 -47 323
186 -40 277
173 -37 255
187 -40 273
181 -38 264
160 -34 232
188 -39 269
173 -36 246
168 -35 238
157 -32 220
186 -38 259
172 -35 238
175 -35 241
169 -34 230
172 -34 234
169 -33 228
213 -42 285
193 -37 256
-68 -13 90
-134 -27 178
-86 -17 115
-73 -15 99
-78 -16 106
-179 -37 245
-220 -45 302
-227 -47 314
-257 -54 357
-354 -75 497
-367 -78 518
-404 -87 575
-425 -92 610
-350 -76 505
0 0 0
0 0 0
0 0 0
0 0 0
0 0 0
0 0 0
0 0 0
0 0 0
0 0 0
0 0 0
0 0 0
0 0 0
0 0 0
0 0 0
-155 -37 252
-166 -40 271
-111 -27 182
-150 -37 248
-113 -28 190
-70 -17 119
-79 -20 134
-80 -20 138
-52 -13 91
-35 -9 61
-93 -24 164
-71 -19 127
-80 -21 143
-103 -27 187
-107 -29 195
-76 -21 140
-125 -34 233
-140 -39 263
-116 -32 219
-77 -22 148
-70 -20 135
-65 -19 128
-150 -43 295
-50 -14 99
-94 -28 189
-50 -15 101
-57 -17 117
-76 -23 157
-88 -27 183
-66 -20 139
-70 -22 148
-82 -26 177
-70 -22 153
-78 -25 172
-115 -37 256
-86 -28 195
-72 -24 163
-77 -26 177
-81 -27 187
-69 -24 162
-82 -28 196
-79 -28 191
-76 -27 184
-70 -25 173
-79 -28 196
-67 -24 168
-74 -27 189
-73 -27 188
-68 -26 177
-78 -30 206
-67 -26 180
-40 -16 110
-73 -29 201
-61 -25 171
-76 -31 214
-81 -33 231
-47 -19 136
-51 -22 151
-79 -34 237
-53 -23 159
-79 -35 242
-61 -27 190
-65 -29 205
-71 -33 228
-75 -35 243
-58 -28 193
-76 -37 255
-48 -23 164
-57 -29 199
-67 -34 236
-68 -35 242
-70 -37 256
-68 -36 250
-120 -65 451
-126 -70 482
-128 -72 499
-131 -75 520
-126 -73 508
-124 -74 510
-121 -73 507
-119 -74 511
-113 -71 494
-117 -75 522
-113 -74 513
-108 -72 500
-112 -76 530
-104 -73 505
-110 -78 544
-103 -75 521
-101 -75 524
-100 -76 532
-96 -75 524
-93 -75 521
-92 -76 530
-90 -76 533
-86 -74 518
-82 -73 509
-79 -72 505
-75 -71 493
-68 -66 464
-55 -56 388
-53 -55 383
-54 -58 402
-47 -52 364
-41 -48 333
-42 -50 347
-37 -46 319
-38 -49 340
-35 -47 329
-33 -46 324
-34 -49 347
-31 -47 332
-27 -43 303
-27 -45 318
-23 -41 287
-22 -43 300
-21 -44 306
-19 -41 290
-17 -39 274
-16 -41 288
-15 -40 280
-14 -41 290
-12 -40 284
-10 -38 267
-9 -39 272
-9 -41 289
-7 -42 293
-6 -41 285
-5 -42 298
-3 -40 280
-2 -40 281
-1 -40 282
0 -43 299
1 -41 287
2 -41 291
3 -41 290
5 -40 281
6 -41 290
8 -43 300
9 -42 293
10 -42 297
12 -42 298
12 -41 287
14 -41 291
16 -44 310
17 -43 301
20 -47 328
20 -43 304
22 -45 315
23 -44 307
25 -44 312
27 -46 322
29 -46 325
29 -45 316
32 -47 330
32 -45 317
35 -46 326
37 -47 331
37 -46 325
38 -45 316
39 -45 316
42 -46 324
41 -44 311
47 -49 345
47 -47 327
48 -47 328
49 -47 326
51 -47 330
51 -46 320
54 -47 328
57 -48 334
54 -45 313
59 -48 333
60 -47 330
62 -47 331
63 -47 327
64 -46 323
67 -48 333
68 -48 333
66 -45 316
73 -49 338
68 -45 312
74 -47 330
78 -49 343
79 -49 339
84 -51 351
86 -51 354
84 -49 339
83 -47 329
87 -49 339
88 -49 337
85 -46 320
86 -46 318
86 -45 313
82 -42 294
81 -41 285
77 -39 267
71 -35 242
76 -37 256
77 -37 256
71 -33 232
76 -35 243
78 -35 245
74 -33 232
76 -34 233
74 -32 225
76 -33 227
78 -33 228
77 -32 224
80 -33 228
79 -32 222
79 -32 221
78 -31 214
83 -33 227
84 -32 224
86 -33 228
86 -33 226
88 -33 228
89 -33 226
92 -34 231
95 -34 236
96 -34 235
107 -38 260
91 -32 218
98 -34 234
101 -35 238
109 -37 254
106 -36 244
114 -38 259
111 -36 249
115 -37 256
116 -37 255
116 -37 252
114 -36 246
119 -37 254
116 -36 244
120 -37 251
118 -36 245
123 -37 251
126 -37 255
132 -39 264
132 -38 261
139 -40 274
146 -42 284
160 -46 309
143 -40 273
143 -40 270
140 -39 263
156 -43 289
165 -45 305
140 -38 255
149 -40 269
138 -37 248
142 -37 253
147 -38 259
135 -35 237
119 -31 206
171 -43 293
149 -38 253
131 -33 222
154 -38 258
180 -45 299
175 -43 288
161 -39 263
142 -34 230
135 -32 217
153 -36 245
139 -33 220
170 -40 267
159 -37 247
129 -30 199
145 -33 222
149 -34 227
160 -36 242
146 -33 218
175 -39 261
174 -39 257
145 -32 213
192 -42 280
148 -32 214
159 -34 228
158 -34 225
127 -27 180
174 -37 244
189 -40 264
142 -29 197
146 -30 201
154 -32 210
150 -31 203
147 -30 198
162 -33 217
178 -36 236
-110 -22 146
-76 -15 101
-112 -23 150
-107 -22 144
-119 -25 161
-78 -16 106
-152 -32 208
-158 -34 219
-308 -67 429
-426 -93 597
-382 -84 540
-375 -83 534
-394 -88 565
-356 -80 514
0 0 0
0 0 0
0 0 0
0 0 0
0 0 0
0 0 0
0 0 0
0 0 0
0 0 0
0 0 0
0 0 0
0 0 0
0 0 0
-316 -78 507
0 0 0
-158 -40 258
-145 -37 238
-57 -14 96
-80 -20 134
-145 -37 245
-139 -36 236
-105 -28 181
-113 -30 195
-93 -25 162
-103 -28 182
-97 -26 172
-83 -22 148
-89 -24 161
-54 -15 100
-108 -30 200
-77 -22 143
-78 -22 146
-74 -21 141
-77 -22 147
-92 -27 177
-60 -18 117
-76 -22 149
-77 -23 153
-81 -24 163
-69 -21 140
-92 -29 189
-88 -27 182
-109 -34 227
-82 -26 174
-67 -21 142
-73 -24 158
-62 -20 135
-89 -29 195
-68 -23 152
-62 -21 140
-49 -16 111
-70 -24 160
-80 -28 186
-90 -32 211
-73 -26 175
-79 -28 190
-66 -24 161
-70 -26 173
-77 -29 193
-78 -29 197
-86 -33 220
-54 -21 141
-67 -26 175
-73 -29 194
-67 -27 181
-81 -33 219
-65 -27 180
-73 -30 204
-66 -28 186
-74 -31 211
-57 -24 165
-72 -32 212
-64 -28 191
-79 -36 240
-66 -30 202
-51 -23 158
-45 -21 142
-51 -24 163
-53 -25 172
-56 -27 185
-45 -22 151
-45 -23 153
-45 -23 157
-65 -34 230
-64 -34 231
-60 -33 220
-43 -24 161
-73 -41 276
-111 -63 427
-137 -79 533
-126 -74 498
-124 -75 502
-118 -72 487
-122 -76 514
-123 -78 527
-118 -76 515
-115 -76 513
-115 -77 522
-113 -78 526
-108 -76 512
-107 -77 518
-110 -81 547
-103 -77 520
-102 -78 528
-97 -76 516
-91 -74 497
-95 -79 531
-90 -76 513
-86 -75 506
-82 -74 498
-82 -76 513
-77 -73 494
-74 -72 485
-65 -65 442
-54 -56 382
-59 -63 425
-48 -53 362
-44 -50 343
-42 -50 342
-40 -49 335
-40 -51 345
-39 -52 352
-34 -47 321
-32 -47 317
-32 -48 329
-31 -49 331
-25 -42 288
-25 -45 304
-24 -45 305
-22 -44 298
-20 -42 288
-19 -43 293
-18 -43 296
-17 -45 307
-15 -42 288
-13 -41 281
-12 -43 290
-11 -41 281
-9 -41 279
-8 -41 281
-7 -42 284
-6 -41 281
-5 -42 289
-3 -42 286
-2 -40 274
-1 -39 269
0 -42 289
1 -42 284
2 -43 293
3 -41 283
5 -43 293
6 -44 298
7 -43 292
9 -43 295
10 -45 306
11 -42 287
13 -43 296
13 -41 283
16 -45 307
17 -43 296
19 -46 311
21 -46 315
22 -47 320
24 -46 317
25 -46 311
26 -46 310
28 -46 315
30 -48 326
31 -47 317
33 -48 325
34 -48 324
36 -48 329
37 -48 323
38 -47 321
40 -47 322
42 -48 325
43 -47 320
44 -47 319
48 -49 334
48 -48 326
49 -48 325
51 -48 325
50 -46 311
53 -47 319
56 -48 329
59 -50 337
57 -47 320
61 -49 331
61 -48 324
64 -49 331
66 -49 334
65 -48 323
66 -47 320
69 -48 327
73 -50 340
72 -49 330
73 -48 327
77 -50 336
76 -48 325
74 -46 311
76 -47 314
78 -47 317
80 -47 319
79 -46 310
87 -49 333
88 -49 331
85 -47 314
86 -47 314
86 -46 308
75 -39 264
80 -41 276
83 -42 284
86 -43 290
83 -41 273
77 -37 251
89 -43 286
79 -37 250
77 -36 241
76 -35 233
77 -34 232
72 -32 216
74 -33 219
79 -34 228
78 -33 224
79 -33 223
79 -33 221
82 -34 225
83 -34 225
85 -34 227
87 -34 230
88 -34 231
84 -32 217
91 -35 232
88 -33 221
89 -33 223
98 -36 240
90 -33 218
97 -35 233
99 -35 236
112 -40 264
98 -34 229
99 -34 227
96 -33 219
100 -34 224
111 -37 246
114 -38 251
96 -31 209
113 -37 243
112 -36 240
121 -39 255
112 -35 234
107 -34 222
123 -38 251
114 -35 230
113 -34 228
128 -39 254
126 -38 249
125 -37 243
116 -34 224
135 -39 258
134 -39 255
113 -32 212
128 -36 238
120 -34 221
143 -40 261
102 -28 186
119 -33 214
124 -34 221
126 -34 222
122 -33 214
121 -32 209
105 -27 181
138 -36 234
111 -28 187
120 -31 201
142 -36 236
125 -31 206
113 -28 185
138 -34 223
152 -38 245
131 -32 208
125 -30 198
135 -33 212
150 -36 233
105 -25 163
130 -31 199
134 -31 204
144 -33 217
130 -30 195
129 -29 192
157 -36 232
157 -36 231
138 -31 201
155 -35 225
157 -35 225
151 -33 216
164 -36 232
141 -31 198
130 -28 182
127 -27 176
131 -28 180
131 -28 178
136 -28 184
149 -31 200
135 -28 180
153 -31 203
-122 -26 161
-114 -24 152
-119 -25 160
-102 -22 137
-43 -9 58
-118 -26 161
-165 -36 226
-245 -54 338
0 0 0
-324 -73 454
-359 -81 507
-399 -91 567
-431 -99 617
-348 -80 502
-248 -58 361
0 0 0
0 0 0
0 0 0
0 0 0
0 0 0
0 0 0
0 0 0
0 0 0
-319 -79 496
0 0 0
0 0 0
0 0 0
-302 -77 485
-230 -59 372
-166 -43 271
-106 -27 175
-115 -30 191
-78 -21 131
-103 -27 174
-91 -24 155
-88 -24 151
-87 -24 151
-108 -30 189
-78 -21 137
-75 -21 134
-51 -14 91
-66 -18 119
-109 -31 200
-90 -26 166
-101 -29 187
-98 -29 184
-61 -18 117
-93 -28 179
-67 -20 129
-64 -19 125
-50 -15 99
-60 -18 120
-41 -13 82
-92 -29 186
-27 -8 56
-76 -24 157
-66 -21 138
-98 -32 206
-80 -26 170
-98 -33 212
-73 -24 159
-69 -24 153
-68 -23 151
-62 -21 140
-73 -26 166
-60 -21 138
-75 -27 174
-62 -23 147
-63 -23 150
-68 -25 163
-77 -29 187
-80 -30 197
-62 -24 155
-86 -33 217
-44 -17 113
-65 -26 168
-60 -24 157
-66 -27 175
-72 -30 193
-77 -32 209
-57 -24 156
-59 -25 164
-59 -26 168
-48 -21 138
-58 -26 168
-68 -31 201
-41 -19 124
-59 -27 180
-60 -28 186
-74 -35 231
-70 -34 223
-59 -29 190
-59 -30 194
-59 -30 197
-44 -22 147
-81 -42 276
-40 -21 138
-52 -28 183
-75 -41 270
-47 -26 171
-61 -34 225
-45 -26 172
-85 -50 327
-116 -69 451
-125 -76 494
-119 -73 480
-128 -80 525
-117 -75 489
-117 -76 500
-118 -79 514
-120 -81 532
-114 -79 518
-112 -80 521
-110 -80 523
-106 -78 513
-107 -81 531
-102 -79 518
-97 -77 503
-94 -76 499
-96 -79 521
-92 -79 517
-91 -80 523
-89 -79 522
-81 -75 492
-80 -76 499
-70 -69 451
-67 -67 442
-59 -61 403
-59 -63 414
-50 -55 364
-47 -53 352
-45 -52 346
-42 -52 341
-41 -52 343
-39 -52 342
-36 -49 327
-35 -50 332
-33 -50 329
-32 -49 325
-29 -47 311
-25 -43 287
-24 -43 285
-22 -42 281
-21 -43 286
-20 -44 289
-19 -44 290
-18 -44 289
-16 -42 281
-15 -42 281
-13 -42 278
-12 -43 285
-11 -43 286
-10 -43 285
-8 -41 274
-7 -43 282
-6 -45 296
-5 -44 294
-3 -41 270
-2 -42 278
-1 -43 286
0 -43 285
1 -41 271
2 -43 288
3 -44 292
5 -43 286
6 -47 309
7 -44 293
9 -44 294
10 -45 297
12 -45 298
13 -44 292
14 -44 293
16 -47 314
18 -47 312
20 -49 324
22 -50 330
22 -47 309
24 -49 323
24 -46 305
28 -50 333
27 -47 311
32 -52 340
32 -49 327
31 -47 309
35 -49 326
35 -48 317
38 -50 328
39 -50 327
40 -48 318
41 -48 319
43 -49 322
45 -49 324
42 -45 296
49 -50 333
47 -47 311
49 -48 316
51 -48 318
52 -48 315
54 -48 316
54 -47 310
57 -48 318
58 -48 315
59 -48 316
59 -47 307
60 -46 306
62 -47 308
66 -49 319
63 -46 301
71 -50 331
68 -47 308
67 -45 299
71 -47 309
74 -49 319
73 -47 307
77 -48 317
78 -48 315
76 -46 302
72 -43 281
79 -46 302
75 -43 284
78 -44 290
77 -43 279
74 -41 266
73 -39 257
72 -38 248
76 -40 260
72 -37 240
82 -41 271
77 -38 252
69 -34 223
77 -37 242
81 -39 252
74 -35 228
77 -35 232
75 -34 225
76 -34 224
78 -35 227
80 -35 230
80 -35 227
82 -35 228
78 -33 213
83 -35 227
85 -35 229
88 -36 234
82 -33 215
86 -34 222
93 -36 236
94 -36 236
93 -36 230
86 -33 212
90 -34 218
94 -35 226
76 -28 181
94 -34 221
94 -34 218
84 -30 193
97 -34 221
97 -34 219
101 -35 224
103 -35 226
99 -33 215
98 -33 211
104 -35 223
103 -34 218
